# 3D point list with one line of data per point:
#   POINT3D_ID, X, Y, Z, R, G, B, ERROR, TRACK[] as (IMAGE_ID, POINT2D_IDX)
# Number of points: X, mean track length: Y
1587 4.329059456960934 0.5488514213952909 3.3733037189528234 23 37 72 0 53 850 54 427 89 532
1588 1.7545524355001845 1.983816204206718 -2.2978928355055794 124 108 96 0 91 1387 48 827 96 1607 2 2445 93 1566 80 212 53 134 92 1431 50 1312 99 2444 73 194 86 1438 72 1563 68 1539 97 1581
1589 3.82354544502071 -3.472279158087214 1.104344307060772 135 125 109 0 0 1073 56 51
1590 3.090752418344586 2.0507366862991803 -1.508411238529615 14 13 12 0 1 54 14 970 11 1249 13 1437 78 1140
1591 -1.6236791366498593 -1.1484544385722018 1.9862013374883103 33 29 13 0 2 38 93 220 80 156 87 725 74 661 82 90 81 223 73 795 79 197 71 664 70 860 83 1171
1592 1.4915204396812225 0.4870897333494251 -3.9617891014665476 200 181 163 0 54 235 55 389 59 1185 61 211 63 936 60 1715 58 902 57 513
1593 0.35766371092258026 1.9575087648819922 0.45779377315297126 97 78 57 0 88 662 93 380
1594 1.8475771217053376 -2.7181070680871433 4.385386645759293 90 79 67 0 37 386 48 809 49 938
1595 4.778237248993217 0.7183544721448203 -0.6439502594800295 10 11 4 0 49 815 64 569 32 772 31 66
1596 3.775725048200988 -0.9961382648786999 -3.0982424720257535 25 16 2 0 59 552 62 1016 69 560 52 1061 55 937 54 649 60 1197 47 878
1597 0.8271629149119306 -0.920432707593274 -1.8059816773496242 146 135 135 0 76 662 79 496 97 18 81 1386 87 1500 99 360 75 704 85 1526 98 1593 82 378 95 614 84 654 88 1637 96 142 83 166 90 1316 77 439 94 1580 86 1511 92 141 91 47 80 837 2 1768 93 218
1598 3.1498080090174687 0.12260844669112675 -3.8900308148862757 69 58 48 0 2 774 52 1392 97 256 98 46 90 436 88 208
1599 2.235481293039842 -0.15939203578887537 1.1879525797694526 138 103 85 0 1 352 26 894
1600 0.8350081844503213 -1.5565436309350007 -2.0289750478648556 176 166 145 0 20 1004 89 788 1 754 78 649 67 1048 45 636
1601 1.9962748190252726 0.16517141158472895 1.0726154785238742 163 138 93 0 6 67 8 308
1602 1.9196011981802166 -2.784556040048982 4.383076358552782 111 103 88 0 1 847 8 1177 9 301 78 591 67 1324 56 381
1603 0.3107347475644726 1.116391361295817 6.419294501170576 93 87 81 0 53 444 54 54 63 820
1604 2.7997433510038436 0.8930636709876941 -1.493262730741862 11 9 6 0 64 2139 95 2320 96 2093
1605 1.997052262141776 0.6078236599315321 0.6646016962582604 57 45 40 0 12 1835 34 2121
1606 6.847497752994461 -2.4608116492951324 7.591375582094231 190 174 159 0 0 1888 78 2141 5 1900 12 1843 23 1994 56 1856 67 1772 89 2302
1607 0.9962003097262349 2.016194013643441 -1.0897808126074315 161 143 122 0 61 582 74 299 75 1051 72 1353 70 760 83 89 68 409 66 298 63 701 60 924
1608 -1.6446112900586853 -1.1770748641862063 1.4215857062819826 132 120 108 0 90 101 86 1019 91 101 84 984 97 1238 88 1341 96 1151 83 1308 2 1556 87 303 98 1199 85 1203 82 927 81 568 79 1463 92 60
1609 -1.530501507557643 -1.8388691094112313 0.23231141731795277 247 231 215 0 1 1733 15 1977 21 1580 22 1722 78 1762
1610 1.287206029018459 0.8651460653828678 4.520883019523357 204 196 197 0 1 532 6 989 45 571
1611 2.301530610903879 -0.20971851867190117 1.418288473698553 203 203 199 0 1 2573 4 2625
1612 4.827224835368186 0.8765037307913678 2.2135652368365304 53 61 55 0 77 1100 66 1158 79 706 65 1609 81 1429 68 151 82 265 69 1643 72 1775 71 168 70 1587 83 42 74 1639 76 1354
1613 1.7897888246405198 0.2995353097151077 4.391605304969038 32 23 25 0 19 1143 87 1083
1614 4.129867210057386 1.1289742283712936 3.744713758832237 25 17 18 0 12 578 78 449 0 564 89 837
1615 1.9786774453273521 3.4810517328217805 0.6768283028605352 71 78 98 0 15 197 21 452 18 210 14 266
1616 -1.797918810277535 1.9869901779140493 1.015588038432112 69 68 62 0 62 875 75 164 36 525 76 1316 24 732 40 99 35 574 33 607
1617 3.5888607898035616 0.97538168310006 3.228696112491328 38 31 29 0 9 1198 11 1685 10 675 13 1318 16 1129 14 1398 18 1227 15 1212 29 406 31 22 28 435 25 1101 32 891 6 830 35 836 5 1188 27 694 56 438 1 751 89 758 30 47 4 859 33 1061 36 1094 7 1305 26 933 52 969 37 1082 8 749 67 1357 24 452 21 1047 22 95 20 1299 78 1001 19 1297 17 1438
1618 0.5434840961002814 -3.1658122133077202 5.475963171275626 95 86 76 0 32 441 42 995 29 805 30 516 27 471
1619 2.153122530830119 -3.3654901697405957 2.226551755908681 140 130 114 0 1 298 61 93
1620 4.196120996873927 -1.7280969661911714 2.2743155233880437 222 213 200 0 53 1988 79 473
1621 3.250227501248497 -2.777754403064904 3.569664955741943 105 94 82 0 6 2348 45 2370 78 2324 23 2334 12 2382
1622 -0.7581675610814241 -0.6572466721256077 7.130091154055006 132 147 163 0 7 1731 20 2044 19 2101 6 1886 5 2064 4 1822
1623 1.5766546623392064 -1.5814372114203556 4.890213866500201 66 49 38 0 6 259 7 778 9 323 67 956 8 1459 11 613 10 1611 16 1495 45 497 14 310 18 196 15 239 12 473 23 274 56 744 4 13 17 56 78 581 26 1069 13 1666 1 578 89 718 3 882 34 587 5 1299
1624 2.111673650491499 -3.3880897299323447 0.9040674182638762 115 105 89 0 1 328 14 1152 7 423 8 434
1625 -3.1281520100543805 1.2348878738687181 5.21837946870396 51 56 63 0 80 693 68 1634 76 1055 83 425 70 1367 84 1728 71 1445 88 405 66 1077 79 1118 86 1328 73 1352 77 842 87 1402 74 640 65 1628 85 455 72 1032
1626 1.9964172438050654 0.2098901749853529 1.2138279274272379 79 89 104 0 1 1138 89 1039
1627 -1.8545141443173134 -0.14578344745725977 7.850270099888473 61 78 82 0 20 288 68 719 3 863 13 759 0 554 11 869 23 413 34 983
1628 -0.3023149428020662 1.2577121692893316 -3.0833593111779223 77 62 43 0 96 628 90 538 86 348 95 1215 66 1136 82 98 87 1015 65 121 94 1584 81 505 68 155 97 1351 88 1243 84 391 99 1817 73 122 60 152 2 905 98 85 69 953 75 493 62 210 91 7 93 1535 64 1067 79 375 85 1724 71 122 80 273 83 497 92 1127 77 744
1629 1.980159179064193 -0.11023638011606056 1.341405870683895 161 123 98 0 3 2095 89 2162 1 1947 78 2199 67 1742 56 2170 45 1865
1630 3.3176041019454603 2.0008127181038367 -0.5571211804078391 36 29 28 0 2 2304 62 1981 75 1933 73 1800 60 1775 61 2006 85 1999 68 2484 63 1947 84 1858
1631 0.7786579816602224 0.2581172825567044 1.354454846857672 171 148 116 0 83 843 95 1474 84 516
1632 1.0238386762543195 0.8419903761742076 3.1068249179894245 115 116 109 0 6 1818 45 1777 89 1910 1 1784 78 2299 67 1967
1633 4.001839686291136 -2.876326117956184 -0.5753935113173896 162 153 135 0 1 919 34 654 45 658 56 855 0 624
1634 1.9884127132324074 -2.2500951766108392 -2.603282764245343 228 218 208 0 14 1008 24 728 13 1648 10 1597 5 441 3 735 4 997
1635 0.743410409209633 -1.6671227517288008 5.413307423221771 124 113 101 0 48 898 49 870 60 1185 35 135 50 796 63 752 36 263 65 1320 59 1157 68 1182 42 725 37 4 66 959 90 1130 38 744 84 783
1636 0.10565560648177301 1.0000692533563502 3.1865907511536573 23 24 26 0 1 90 5 885 78 1653
1637 1.9982738385929606 -0.09529162823236904 1.1004434560357355 152 114 93 0 67 2410 78 2402 56 2329 45 2468 34 2210
1638 1.3068127443446487 0.6990821035459205 3.0943582813589146 161 155 149 0 1 1039 78 803 0 526 67 962 56 994 45 1521 23 677 34 165 12 834
1639 2.1160751513475398 3.3143949747078714 0.9122854936286587 42 43 57 0 14 236 20 419
1640 1.3575532103680574 1.5735757808726205 -2.7594229480559638 19 17 15 0 54 584 51 1436 55 836 70 346 69 465 59 756 61 864 48 894 49 593 62 774 57 721 58 1102 60 824 64 856 63 1293 50 680 53 1704 66 552 65 1035 52 1601
1641 0.8271778228569603 2.4986804961482 0.6836515145767859 83 83 93 0 93 2541 98 2159 87 2375 97 2235 91 2483 92 2468 94 2395 90 2481 96 2112 88 2429
1642 1.0284316562383038 -0.82733045160569 -1.8290486061902707 24 22 19 0 3 724 22 96 4 953 89 654 23 108 34 738 12 341 0 229
1643 -0.900073845058211 0.8406872616984697 4.540694733208262 71 76 81 0 53 653 73 304 54 202
1644 5.078776851337407 1.0286369126230195 2.1209345194784097 105 84 65 0 24 2243 35 2170 22 2226 19 2346 18 2297
1645 -0.6273645988703905 -1.4552318995838338 -2.7403642619699666 130 112 91 0 13 41 26 430 10 63
1646 -1.2044293738190268 -1.5286031427480902 0.5605702604225461 170 154 138 0 8 1394 17 840 4 1018 56 562 19 650 9 14 7 555 3 767 89 535 67 803 12 408
1647 4.46982299967335 1.9382835656369388 -2.789267363002468 8 8 4 0 21 1283 29 44 22 1491 20 1468 19 1441 18 1394
1648 1.7913147226710597 0.926172941355757 4.557730155373212 34 34 19 0 67 465 78 1528 1 68 56 1336 4 281 0 926 12 1439 23 979 10 549 45 433 6 1113 18 651 5 301 34 1460 11 510 89 1403 7 970 3 388
1649 1.9531461527952598 0.39599072241272804 1.1219389067642713 115 127 149 0 1 891 78 889 89 1314
1650 1.635837759110772 0.7290872120869283 4.448658498378899 67 65 52 0 45 37 0 69 78 1178 3 1393 8 1020 34 227 10 1035 23 805 4 1422 56 1087 89 151 1 92 9 864 67 1103
1651 0.6219289197341427 2.0616786837105816 -1.0164188825270966 169 151 130 0 2 879 93 605 95 642 98 1367 99 441 97 39 91 503 92 1289 94 114 90 701 96 568
1652 0.5319656263473528 -0.06210175431272386 0.8478338677534895 125 86 67 0 59 1258 62 890 60 1187
1653 6.5745878750690485 0.1047968615701641 2.456744789074994 18 14 12 0 19 138 30 157 41 1135 42 1420 44 709 46 170 43 1191 84 1297 29 186 88 421 64 1385 79 1193 20 310 26 164 85 362 71 26 15 110 74 1305 80 1527 83 901 32 335 91 388 33 635 92 844 76 1431 18 1422 77 1393 34 1560 93 705 8 902 67 647 86 1477 27 1317 1 727 72 1322 14 439 73 535 56 1378 89 441 7 1361 66 982 9 1106 68 238 10 1020 69 1693 16 1323 75 1345 2 1588 95 1269 36 1521 82 812 98 436 39 1065 70 1579 99 975 40 931 87 1633 28 220 81 22 22 277 94 479 35 1363 65 1490 97 710 38 1277 90 1617 31 873 96 844 37 940 63 638
1654 3.610040035488629 -1.7525270500553631 -3.3512604395244483 208 200 177 0 23 396 52 892 12 984 90 1075 13 1603 0 529 87 50 18 847 94 366 83 676 54 1513 20 1291 19 1205 45 43 17 965
1655 1.202184604215041 -1.8221784285758038 5.177836410445116 65 57 60 0 47 1167 18 61 48 698 19 445 57 647 64 528 54 1158 25 746 66 755 68 887 71 1086 42 531 69 1236 65 1032 36 53 15 104 41 625 24 1147 26 865 38 548 46 451 14 137 43 118 59 937 30 127 62 729 20 950 49 677
1656 -3.212876433068212 -1.6770498423514288 3.3748873573573053 41 40 42 0 9 785 20 448 6 798
1657 -1.5912674846143822 -2.1461006530862123 0.616102533817859 113 102 84 0 1 1496 11 173
1658 -4.777391024778313 -2.521933602122182 5.875396517698944 49 51 53 0 20 1411 21 1011 22 1222 67 58 56 713 45 208
1659 1.9506756408405934 -0.38505427678350346 1.97171274986538 144 130 113 0 23 1013 34 39
1660 1.9404851953405617 0.9555417275061014 1.0420390656794793 29 35 51 0 1 355 78 330 89 267
1661 6.308423751228771 2.542923903679797 0.5646146627989204 88 85 85 0 19 681 29 661
1662 2.063071110636547 0.1707939518071022 0.9898484691688723 113 86 56 0 7 1968 11 2297
1663 1.5311743936117888 1.2061576262996936 3.1487017151177965 27 24 27 0 3 1853 78 2081 89 1505 67 1818 23 1809
1664 -0.8698544008317902 1.9964975942324485 0.41799851899409857 62 55 49 0 93 2491 98 2730 97 2734 83 2289 96 2750 92 2457 94 2615
1665 2.9512868646262977 1.2998527549994479 -3.7798948271833592 59 53 47 0 14 408 17 348 78 590
1666 -0.4492313653805025 -3.3078394003784677 0.032856783213771154 189 173 157 0 68 2518 81 2380 79 2345 80 2412
1667 -0.9761014480081853 0.49398425552514125 3.54154010507455 158 158 156 0 5 1144 7 652 9 30 67 62
1668 -0.46868492710918386 -3.1440412396595163 0.3377981946152326 176 162 145 0 28 1138 67 229 29 46 78 92
1669 1.9566708969609796 -0.02320283377378924 1.340194389069303 100 71 51 0 5 312 8 611 3 692 4 832
1670 0.22266577511159885 2.0294153605421705 -0.5511877413877324 181 163 137 0 73 882 81 795 85 1330 76 370 80 352 83 360
1671 0.1777122310255371 2.1140362571831997 3.594821551261949 13 13 13 0 29 2461 36 2479 30 2428 17 2433 28 2453 15 2549 25 2423 26 2407 21 2478
1672 2.3319000572143764 2.0180842200509677 2.3565225846617186 47 40 34 0 8 382 15 966 17 137 18 1152
1673 1.2227371947297263 1.9672454264140522 -1.2772953088463734 146 129 105 0 82 495 73 209 79 579 40 277 80 520 83 563 44 1062 77 606 84 662
1674 -1.6810341131579127 -2.490608499375084 0.8398335113915106 156 145 121 0 61 2494 65 2541 69 2630 66 2552 63 2547 64 2532
1675 1.594476751447238 1.257602307861842 1.528734262388772 190 154 106 0 1 1660 36 556
1676 3.684268484892489 0.881247956415862 3.935751122865762 167 160 153 0 8 86 34 354 67 129 78 1355 0 380 89 279 56 809 45 357 23 497 12 1150
1677 -3.206536217860736 1.6075318465520552 -2.61821013946362 101 89 72 0 5 99 6 1549 7 1589 9 1621 67 1661 8 64 0 2075 13 1449 78 1626 12 1679 23 1976 10 1211 45 1827 56 205 14 1582 1 1615 55 858 11 1623 89 1685
1678 0.24956952884595449 0.9068509853149193 -1.6231231088818716 232 217 208 0 4 199 56 821 67 819 78 770
1679 4.0568915065659485 0.8434345355716066 2.2976023026964905 60 50 44 0 34 926 23 543 0 1259 39 55 78 376 12 137 22 586 40 126 14 1 1 604 3 752 89 670 67 605 56 552 45 906
1680 5.376036047192505 1.9514945031822302 0.8535760810721325 41 30 30 0 2 726 75 1480 95 611 98 1775 72 1592 99 1710 97 1784 71 187 74 1498 76 10
1681 4.192195829147572 2.0214712574110445 2.188834456129698 15 11 11 0 7 690 67 1721 89 2116
1682 1.4458113236836667 -3.4387986819524374 2.5618674382311744 147 136 121 0 11 501 67 261
1683 4.43176656591477 -2.3323502771077913 3.4704925664239585 70 64 54 0 13 1071 67 471 89 241 45 28 34 79 12 1662
1684 0.11260520819772045 2.0542899016982257 3.292367724397367 38 37 41 0 45 542 89 1156 34 431
1685 -1.4181096777843951 2.1744853741999113 -0.5082220584077051 163 146 122 0 2 377 93 1123 95 752 98 1890 99 1245 97 940 91 910 92 1455 94 577 96 1164
1686 0.06454219478131124 -3.084915439776104 -0.6462254503882884 183 170 153 0 50 619 68 1474 43 608 44 552
1687 -0.0862545803974125 1.8266219612413612 -1.9560682445609023 128 113 92 0 74 1106 77 1067 84 1257
1688 -0.22584601729910408 -2.409028584995294 4.064791660057671 96 90 84 0 7 1074 13 1551 6 770
1689 -7.8245255298396374 -1.4296077851883964 1.9789964066949246 116 116 106 0 77 1550 80 86 64 740 66 1526 79 1525 65 1140 81 705 68 876 82 1475 69 829 72 250 71 988 70 514 74 173 76 1623
1690 1.533118439956508 1.1485480945771835 3.08363558959706 28 25 28 0 23 1789 67 1801 89 1859 34 2225 0 2004
1691 -7.467376760158459 0.49005647611770836 -0.5682283781954506 33 35 33 0 65 533 69 1843 73 259 75 1437 79 1483 66 1714 85 1026 71 672 70 1726 74 1489 76 1563 68 55 77 52
1692 5.967559969656167 -0.7464844786231968 1.438026471963935 143 138 118 0 18 693 63 836
1693 1.930404132711359 1.0257212971321976 3.7623855918689766 206 195 197 0 4 929 5 466 6 646 89 993 67 871
1694 1.4522551172178946 -3.000242685563031 3.3417110275178867 161 149 139 0 7 1193 67 1047 56 1244 34 1230
1695 0.040808746511313186 -2.7095828792339374 -1.32745449378546 191 176 161 0 75 1154 82 616 81 1322 79 703 76 1095 80 1097 77 1087 84 567
1696 3.155446428550128 1.859942726336892 -1.0806794386642615 12 10 9 0 8 51 16 498 9 201
1697 2.976942038090374 0.7076688686343471 3.5801125039131296 99 97 97 0 1 420 56 282 78 163 0 114 89 537 45 622 23 152 34 616 12 106
1698 1.94744448032443 0.6879106238109582 -3.564787660534601 201 192 222 0 10 813 57 694
1699 -4.820747786762927 -0.951874319598258 1.128468513598963 50 50 43 0 59 1176 62 707 65 1120 69 878 76 741 68 2176
1700 2.6398372173130906 -3.080473833180561 -0.7855347006949736 127 117 99 0 70 2111 97 2566 98 2661
1701 1.6737262056890083 1.9451119751025037 -1.4655210828748357 148 130 109 0 87 93 74 103 95 162 65 800 91 260 92 444 66 665 86 987 94 22 90 1216 64 671 96 348 88 283
1702 -0.09984684580517705 -2.2963999153607513 -2.1143704108794954 193 182 173 0 64 584 65 883 88 431
1703 -0.9218533283121944 -0.3152660404195257 3.6613053490729057 89 98 102 0 52 1402 53 1538 54 176 55 358 58 656 57 229
1704 0.8664340897307466 1.1338408069193326 -1.9434709768241558 82 76 69 0 18 928 26 20 13 335 27 994 14 311 10 579 8 547 9 497
1705 0.8730288004439103 -1.6175458690848088 5.263669389162613 34 27 36 0 8 1473 17 252 9 1143 7 846 6 364 5 896 3 988 89 810 1 691 78 671 67 1394
1706 1.837995442131652 3.482786543895227 0.7910709985933543 86 91 106 0 15 1630 21 1519 14 1622 16 1441
1707 4.704729686549188 0.9479338188051484 0.6419100809396866 21 16 9 0 56 671 65 149 0 438 23 529 34 1193 12 1188
1708 -0.23815932732793207 2.0424211979097904 -1.1818602616709504 164 147 123 0 75 588 88 1372 98 2151 87 258 74 827 97 2344
1709 3.337247222480674 0.14489183347805523 -4.316396990637303 91 86 72 0 17 390 56 1025 23 674 34 94 0 789
1710 2.7750150212436924 7.483065222533117 1.7298846000340908 201 135 107 0 14 424 79 347 77 328
1711 0.9498154093202672 -0.46825128849689407 4.949593319895374 190 183 177 0 14 1029 26 1059
1712 0.994494771944508 0.7446591662775107 3.1616171586346105 9 11 9 0 23 721 56 1269 12 1160
1713 3.850466125214997 1.1091862427853423 3.5987978968789265 204 192 193 0 4 1088 56 1024 5 590 6 1398 45 198 7 93 0 933
1714 -1.0865359148075084 -3.303462635949123 1.4816785504106744 123 112 96 0 1 161 41 547
1715 0.005535949941728982 -2.1620079939936825 5.079698494785886 121 111 93 0 6 1117 45 1244 7 506 78 1404 0 285 67 1598 56 1465 23 454 34 1139 12 1181
1716 -0.6913478625404607 2.0622696780796774 -0.30959224125861257 164 146 118 0 74 1387 70 1355 69 1524 52 395 81 1630 65 694 73 1632 44 769 76 1271 47 539 50 120 79 1210 75 1339 46 574 62 630 49 120 60 320 64 1087 63 352 54 338 51 378 80 1362 66 111 53 285 55 384 68 475 77 1417 48 569
1717 2.0190748659405937 -0.34350652071306303 4.705161521328202 202 192 187 0 13 343 0 935 14 264 15 994 16 892 56 379
1718 1.966961449032727 -0.10932339369798627 1.3633686446140438 152 127 108 0 67 813 78 1319 56 860
1719 0.15339175738445132 -2.2533375744784596 -1.2771280124012596 254 252 251 0 69 563 93 1948 68 509 92 1193 88 1194 35 1502
1720 2.8824410736205412 1.8013689697848665 4.0081648859700305 26 16 10 0 1 658 23 306 12 699 0 345
1721 0.33487083287521135 -3.2288523271643257 1.676493196153626 167 156 142 0 3 960 8 461 10 140 11 1250
1722 1.1448456317607054 -0.13440025382860954 0.9551509259636969 181 139 111 0 50 1998 52 2031 49 1683 48 2033 47 1709
1723 1.9916686962603622 0.26333879422323325 1.155274760249792 104 118 138 0 56 609 67 497
1724 1.3801762931084336 0.7235259050402212 3.16069080805669 82 70 60 0 23 970 45 300 56 1395 34 1405 12 1254
1725 3.238225687216391 -3.156703057025632 -0.6050318858314027 166 156 135 0 26 1935 92 1459 97 1673
1726 6.086864086547785 0.9288095029379959 2.0947036862776787 217 202 191 0 22 1289 38 620 12 1636 89 1645 1 1579 78 1562 0 1349 56 1580 45 1477 23 1475 34 1520
1727 1.6938701096278768 -2.9861128941646604 2.3467944749681964 116 105 89 0 6 1277 20 1718
1728 2.9282570390163594 -3.038162493327714 2.2999268185122665 141 130 114 0 6 349 16 923
1729 1.317033179657079 -2.693379957665083 3.474637912400003 118 115 107 0 7 1873 10 1688 56 1849 45 1763 0 1953
1730 4.00330467598239 -1.7179878269631026 2.064030653646715 244 238 232 0 32 1751 19 1572 43 1973 30 1601 17 2034 31 1661 27 2095 1 1994 34 1947
1731 4.517535650184887 0.11629027973644812 -3.0782607785536658 30 29 23 0 7 2479 9 2434 8 2441 11 2340 10 2380 13 2506 1 2396 27 2269 14 2473 89 2519 4 2468 17 2314 3 2307 16 2333 5 2572 18 2329 6 2521 19 2199 15 2340
1732 1.9939745834708227 -0.05451322370758126 1.1782610142506724 110 77 61 0 56 1403 89 467 45 990
1733 4.354198011704092 -2.5964115394753557 2.3053349076568717 89 84 74 0 23 437 89 937
1734 -4.81003526058199 1.32741514545261 0.38225464118268504 69 70 69 0 65 1784 91 1602 93 1678 95 1789 69 1755 98 1833 99 1744 68 1807 94 1604 66 1525 90 1614 96 1771 88 1389
1735 3.5343987491808853 1.6346267393706304 3.5018099977124426 158 147 147 0 6 1980 67 2288 0 1736
1736 4.4468724335671 -0.9341330863977669 3.6555765686925543 22 18 16 0 33 244 78 1801
1737 4.279528889809301 0.6428706738328291 -1.5756834601038001 19 17 18 0 24 2380 26 2219 25 2277 27 2382 86 2664 30 2230 29 2358 31 2335 90 2747 33 2390 35 2347 36 2352 95 2812 20 2342 49 2338 19 2387 17 2370 46 2369 41 2343 15 2361 14 2476 43 2328 16 2358 13 2513 42 2364 10 2405 11 2524 40 2262 39 2310 98 2822 21 2372 8 2440 37 2371 9 2394 38 2390 47 2495 77 2485 18 2413 28 2369 51 2449 32 2358 22 2425 81 2594
1738 0.6890681766300821 0.8028367381266434 -1.571933371318943 87 76 68 0 50 124 55 217
1739 2.820378913476657 -0.7503290495259121 -4.96950010020516 176 159 127 0 62 1395 87 29 68 1158 90 1178 12 1087 84 1658 32 832 33 1207 31 1248 28 773 0 785
1740 0.289061913736534 2.095396924792358 -0.8883534077555666 168 150 126 0 87 248 93 1332 95 1628 83 458 94 1097
1741 2.874727309775863 -1.7165168145824026 -5.841048965009327 160 151 127 0 7 997 34 704
1742 1.3645973245761016 -0.3171175961886227 5.013545348643986 197 191 187 0 34 1428 23 453 42 272 13 1272 72 5 52 1070 76 91 47 711 50 1388 75 1036 46 308 53 671 65 522 6 219 7 611 66 287 51 379 12 1279 71 591 64 165 5 498 32 1214 0 1129 58 811 4 219 63 1103 33 815 44 419 57 785 49 1223 60 395 1 1357 70 550 74 96 15 1238 68 381 9 48 84 907 25 1083 55 1507 48 1342 77 136 31 222 29 1229 30 1060 89 1313 28 1186 27 776 26 1058 24 399 21 1308 22 1317 20 1270 19 1192 78 1272 14 1202 8 11 67 107 3 83 56 733 45 339
1743 0.9800905927435485 1.425262914383749 -3.570548418417621 19 8 3 0 4 1262 56 200 5 1398
1744 3.6637518928395263 0.7249591968103775 3.589643697692773 38 46 63 0 0 809 45 1013
1745 2.0008114671507675 0.2731999579736157 0.8015651749294084 101 82 56 0 12 222 34 1712 0 1273
1746 1.779530730808418 0.9779021011069833 -2.7903714230064485 18 16 26 0 61 594 69 334 71 837 68 1800 66 572
1747 2.649806288333309 1.9546810511247776 -1.8688169674146786 138 129 105 0 9 1027 17 316
1748 1.984528769144723 0.9440639578543889 3.693248470616111 217 203 212 0 5 188 10 397 3 684 4 687 56 792 1 559 78 399 67 613
1749 3.8564220374373845 -3.3060310276226486 -0.8549427633853723 159 149 131 0 6 1082 14 77 1 885 5 1046 4 1122 89 1139 78 560 67 1306
1750 0.25259022391884034 2.0110685429773927 -1.503369846960101 148 138 117 0 9 547 11 237 56 272
1751 -5.702104996328944 0.5261458867687011 6.957924212025623 37 46 65 0 57 1955 58 2201 54 1969 46 1822 47 1809 48 1772 50 2078 63 1855 53 2131 62 2082 49 2098 65 394 52 1987 55 2279 51 2162 64 36
1752 1.8872705060533215 1.9097398430283932 3.2707271250203864 13 12 11 0 3 329 10 291 4 93 78 985 45 740
1753 2.938693163725623 1.6526476633951415 -1.8073295485349485 114 109 93 0 25 1014 30 1218 31 1660 26 995 24 1403
1754 0.1947212274003772 0.9862184631641604 4.3994794741691265 167 59 56 0 45 2052 89 2036 23 2105 0 1874
1755 4.1487273628346815 -3.4816835659335905 2.515208509992355 141 129 117 0 0 1345 56 314
1756 1.8692987593979886 -2.3968063685580967 2.4336892366366487 171 155 143 0 17 1236 31 674 18 993 15 763 14 608 16 889 13 131 10 992 11 599 89 956
1757 1.937572365904098 0.24298412999025007 0.9132866465000081 114 99 80 0 23 2401 34 2340
1758 1.9714461802671228 -0.07379200800736263 1.3357134171172382 110 71 52 0 3 825 5 1305 6 1080 4 1134 1 284
1759 1.7694223569771137 1.5017083688790194 3.137257394001837 16 12 14 0 56 1328 67 1275 9 125 1 44 0 906 13 927 78 1739 12 1580 23 779 10 200 18 650 5 1446 34 1401 11 38 89 1247 6 45 45 255
1760 -1.2829118220780293 2.0853018952839975 0.07281218504762517 145 127 109 0 2 2444 93 2227 95 2110 99 1046 86 1944 87 2047 91 2186 92 2283 94 2094 90 2031 96 2152 88 2259
1761 -1.576895938014383 2.0624249186758075 -0.6548333261995939 161 143 119 0 76 959 70 286 71 390 72 1103 85 905 73 386 74 1129 84 1311 88 1602 62 677 75 650 63 149 96 1406 90 220 94 774 86 1538 95 1525 69 1093 93 1179 87 1606
1762 2.776517094098391 -3.2814130419138174 -1.024868541744123 155 146 123 0 38 197 47 192 48 37 40 1017 39 929 33 1201
1763 3.8353571478712327 0.03823344612491083 -2.9467497121653055 115 105 89 0 85 2138 97 2158
1764 -1.2722895272456707 -1.3154454295988163 5.8216620626662845 89 71 53 0 14 205 67 662
1765 -0.18096843770293905 1.0653189693422347 5.793869373544 41 30 31 0 12 431 78 1630 0 1343
1766 2.4495648057826047 0.6610073419104011 -2.982919567779184 25 20 40 0 12 1395 78 1393 0 620 89 1338
1767 0.2704537726831952 0.6517280483071174 2.8731246566319846 19 18 19 0 13 1347 16 1336 11 1559
1768 3.1960258906983188 -1.6915594615110012 0.2942592316028219 157 147 129 0 13 929 14 714 15 730 56 1086 45 891 34 992
1769 -1.434316148002422 -1.0735921669425084 2.4206524741041813 37 30 29 0 55 721 62 1641 54 1505 63 1379 64 454 60 931 58 1771 57 1662
1770 3.6320455676646923 -2.723607489840374 2.076108593741441 153 145 130 0 82 704 93 897 98 761 61 1082
1771 2.918750015890466 1.300806554796128 -1.438955831618935 101 101 97 0 8 78 16 1521
1772 1.6095437719491918 1.7028713037199203 1.0537864309039342 130 107 79 0 40 1573 44 1991
1773 4.5917086178700774 -2.565582130077699 3.501673553048782 74 68 56 0 6 220 7 265 12 1427 13 1030 0 923 14 826
1774 -2.6450056999860103 -1.2770616995466149 -2.991011855423358 217 199 178 0 10 666 44 322 12 541
1775 -1.3313549096015476 2.0830220261062427 0.030751128655053486 158 144 118 0 50 728 61 1499 60 1409
1776 1.8020844736742478 0.30662544717676377 4.410291673425215 26 22 24 0 11 1292 75 353
1777 0.014960786253526821 2.042470565295972 -0.8397298823358408 159 141 120 0 87 395 95 1668 82 502 81 1251 94 1199 85 707 70 151 91 1322 86 269 90 90 63 20 88 1184
1778 -1.3673811984152533 1.4291911349888924 2.217526843890233 79 82 13 0 53 719 69 0
1779 2.7756158578629875 0.7703534270671407 3.871722758399322 15 18 35 0 3 174 4 102 5 284 12 192 0 168
1780 13.347890284237835 34.8845833251915 3.724166196947233 75 77 85 0 67 1694 69 92
1781 1.5988187003030236 1.592587333662575 3.114481969614832 13 11 10 0 56 2294 89 2466 45 2323 23 2341 34 2377 12 2399
1782 1.5959158716991435 -0.660622632649797 4.843302996135129 199 192 191 0 48 2075 49 1733 84 1842 96 2408 51 1784 87 2193 74 2155 93 2057 79 1933 71 2451 70 2202 47 1817 76 1737 95 2221 66 1873 69 2036 43 2192 72 1871 46 2053 52 2016 39 2029 68 2334 82 1718 85 1975 0 1903 59 2054 88 1931 83 2061 91 1095 92 671 86 2056 57 2198 94 595 90 2218
1783 -0.5282103969491919 2.0360675702774818 -0.5151809703866362 180 161 140 0 64 247 96 1804 55 193 92 1651 51 205 80 1189 90 1521 81 318 68 281 97 1921 98 1802 69 1472 58 456 87 1538 57 1284 49 1156 48 350 60 251 61 1202 2 1863 47 409 76 1152 73 1619 99 1901 70 1272 50 1101 59 100 88 1448 62 474 91 1383 53 26 85 1275 72 1112 71 188 74 1348
1784 0.9425521677878077 1.3062338583847923 -1.7249137840301842 73 69 67 0 1 1171 3 1256 56 963 45 65 23 1188 12 729 0 700
1785 5.585731586864005 0.7769689478513273 1.130605898215068 104 97 93 0 53 1412 92 1589 93 1617 82 1577 81 1327 94 1401 65 1215 91 1514 90 973 64 854 63 168 88 1519 57 1242
1786 0.15480422295775922 1.909541843132161 3.176143202462657 14 16 17 0 4 1198 12 1186
1787 1.769779318263375 0.035570986925947436 1.3527499270704084 183 156 108 0 56 801 70 1643
1788 3.9423924400517594 -1.3921567834467266 -3.6193981558889043 82 75 53 0 34 57 5 630 0 1128 78 1477 12 405 6 495 45 601 16 998 3 341 4 673 56 1159 89 1554 1 1501 67 587 23 1591
1789 5.289698075075821 0.5471376307103469 3.0580501283679684 181 176 192 0 83 1496 76 349 79 1587 81 1093 82 1426 74 1605 84 1667 88 1280 75 535 90 343 94 1130 86 264 91 1251 2 490 80 319 98 1486 85 1312 72 1656 87 394
1790 2.795699601529164 -2.0049979117425525 -1.2781853328908725 163 158 138 0 12 802 56 1329 0 1559
1791 1.7242514642835371 1.7797152159576228 3.260937806607559 12 11 12 0 11 90 17 1220 18 743
1792 2.179844674303672 0.4447178354054315 -3.3265083007731175 251 254 255 0 14 7 25 906 26 884
1793 -2.395498629053078 2.0601144483684433 -1.4357019656751662 123 110 90 0 31 1040 32 956 45 1126 33 1383 35 718 37 1270 40 1257 41 1273 34 717
1794 -0.32150237100821366 1.5687993687827697 4.198879064666649 10 9 11 0 53 1374 59 1590 52 1297 55 1566 51 1206 54 1397 58 1577 57 1411
1795 -1.9894500801538042 1.9753117725276619 0.9905649631826043 25 23 25 0 5 620 54 1900
1796 -1.7489825287347767 -1.383318315894008 -1.4600375410616782 184 165 144 0 1 2383 12 2440 23 2367 34 2388 45 2357 56 2420 67 2432 78 2362 0 2450 89 2448
1797 1.6298204259208249 1.095729740214092 3.1381781521784493 10 10 10 0 10 825 15 836 11 463 89 861 7 1272 78 615
1798 -0.4453392807989263 -2.628038408478006 4.166613402398413 133 124 111 0 6 1437 7 1093 89 859 67 1321 56 788 12 1407
1799 0.703762137563981 -2.8891944299432413 4.868342581313797 97 91 79 0 6 1353 45 318 78 924 0 652 89 1319 67 1574 56 826 23 634 34 1657 12 1155
1800 -0.23040551623900293 2.0415046805974915 -1.5757580084931695 136 118 97 0 76 876 79 745 97 1127 81 760 74 1067 87 1308 99 1304 75 564 88 1210 96 1510 83 717 94 1141 86 944 77 705 92 135 91 328 2 1004 93 449 95 5 98 1732 85 377
1801 2.450847646544064 0.7370028910094999 1.0008847008468422 115 125 140 0 37 281 36 122 35 108 33 282 32 81 31 1493
1802 -1.8332545739233619 -3.1390199946689186 -0.888006970731116 173 160 140 0 65 335 75 1609 72 141 71 266 70 458 66 387
1803 -4.969228188642635 0.7854674171569611 -0.16696040631002285 38 41 42 0 2 1168 61 1438 99 1059 60 1297 59 1487 55 1600 58 1466 57 1165
1804 -1.8809997360050372 -1.7540966681014667 5.730498811093306 67 59 47 0 14 944 51 1293
1805 1.0169066899084052 -3.363507489102899 2.324789782963494 140 129 115 0 0 334 3 220
1806 2.017439544664903 0.1293217725952706 1.3844215503425028 183 152 108 0 45 2382 56 2413
1807 2.8340020208700345 -2.4149263563747363 -1.3488310238532282 177 168 147 0 12 2071 67 1870
1808 -3.0270848113016977 0.9349349548890838 -2.08513366617245 57 51 39 0 83 789 80 641 76 36 74 992 71 387 85 660 68 253 97 728 59 187 61 1165 2 1737 65 267 93 544 91 671 62 976 75 837 69 1172 66 1184 95 350 90 156 51 214 54 111 63 986 92 228 60 388 84 591 58 433 87 62 96 610 57 81 86 953 88 383 49 37 48 26 77 1176 94 228 81 864 52 501 73 526 99 986 70 382 50 114 79 742 82 486 53 491 98 592
1809 -1.224014622695551 -3.443120100374945 0.5703871144528193 155 140 121 0 93 600 98 612 99 403
1810 0.7952378282722486 0.8731138435134127 -4.432323174987992 16 9 8 0 4 1211 3 1124 78 1337 13 799 27 1240 1 1070 10 926 11 1013 89 26 8 1022 67 210 9 816 7 23 6 1360 5 821
1811 1.0321521063589427 0.9787625598956624 4.299208614645602 115 108 102 0 5 2098 6 2324 45 2123 89 2173 1 2140 78 2236 0 1728 67 1889 56 2156 23 2198 34 2005 12 1887
1812 2.380920666100123 -3.780143912848811 2.5799653302995385 117 106 92 0 34 873 89 1376
1813 1.5289419593319555 0.22550471071069117 4.543022613534755 15 16 15 0 35 385 78 556
1814 2.243016347860842 -1.9469247411544157 -2.36938842229356 235 225 211 0 3 2239 10 1424 4 1957 1 1820
1815 -1.4749744406604735 0.2714678197303096 2.3027709424470197 93 97 22 0 69 2191 77 1716
1816 -3.5998059570229604 0.9259084707699891 3.5469138060303527 22 26 15 0 15 1389 24 825 11 1464 14 1351 10 1449
1817 1.8997665674677675 0.7780918326578042 1.0316448040994017 118 95 65 0 3 1625 4 1475 78 1574
1818 1.4019960894476666 -0.7480997666184859 4.879202782545977 170 190 185 0 12 1158 56 1427
1819 0.2722400088628856 0.8522245584155534 -1.7893449586290104 226 216 211 0 2 2261 86 1891
1820 1.7779083718633835 0.9993286641392739 3.9788594086387485 211 202 196 0 0 1419 13 1248 78 1588 7 1543 6 1431 45 1419 3 1531 4 1508 56 1594 89 1643 1 1604 67 1588 34 1521 5 1613
1821 0.42795524686080916 2.0184034335398175 -1.0925911890549154 160 142 121 0 81 696 98 590 99 388 97 1399
1822 3.7910205374137402 0.8070116700674664 -3.503495872110448 24 17 10 0 5 880 56 1008 78 832 23 676
1823 2.5611472816445353 -2.311965049943025 2.889572828184522 78 75 70 0 1 123 31 256
1824 0.1738993057091304 0.9401922652567114 3.028749404857479 25 24 26 0 23 572 67 851 34 49 12 1177
1825 2.192782846730087 0.06275339266081151 1.3106709677169974 98 97 91 0 12 1403 45 578
1826 0.2741909306932289 -1.9209815673804858 4.228267773913541 221 211 190 0 53 1792 62 2055 49 1816 50 1652 52 2078 51 2027 54 1711 41 1694 57 1757 42 1913
1827 4.015439854801804 0.7298652423915344 2.3038556974501785 101 91 85 0 10 1056 11 1224 37 497 8 40 32 172 3 1453 84 1119 96 1049 9 956 67 168 86 1231 20 539 78 1396 12 1332 23 784 45 74 6 1139 4 1493 82 1082 85 1222 56 962 5 1538 7 424 89 1206 2 1538 30 715 1 1442
1828 -0.17869860532967266 1.0873643901248902 5.133380796532337 172 173 164 0 23 148 78 478 0 158 34 988 12 826
1829 -1.8222371812586633 -0.5025099228311276 1.127332418135197 101 100 64 0 59 1023 64 488
1830 2.6316190030222857 -6.431022888948493 -0.730835758945101 156 145 127 0 15 2590 37 2528
1831 3.796645098813275 1.706062929426192 3.7062229173395504 15 15 13 0 3 399 15 1127 67 1084 4 437 56 62 89 67 1 378 78 483 45 912 23 1410 34 559
1832 2.3842811559115438 0.97483283672024 4.129939010773272 193 184 160 0 4 132 56 0 67 1108 78 941 0 826 45 290 23 1278 34 308
1833 -0.8259486739340332 2.0563571584960605 -0.8734152327113224 175 157 131 0 97 1326 68 633 65 552 94 1803 81 492 87 429 73 1087 99 364 75 658 93 322 95 1066 66 400 85 1574 98 509 79 101 84 202 88 292 90 1063 77 254 86 867 76 359 63 822 92 1625 53 864 91 175 83 450 80 326 74 795
1834 1.9735913604598472 0.24882259508035023 1.1483655058923252 108 123 140 0 56 1014 67 667
1835 3.5149311811419226 -1.4077203979383457 1.1707178866862415 109 103 89 0 0 2045 34 1870 45 2126 56 2212
1836 -0.08793486476991673 -1.6086314212905424 -1.7961694462871094 252 241 231 0 0 2443 3 2444
1837 2.386857081565929 1.642371812292177 1.201940258442467 159 132 96 0 13 292 17 104
1838 -1.670420909131538 -2.9100370216715756 -0.41301956983555976 126 111 92 0 1 1143 25 820
1839 2.201798781424436 -1.545194674059299 -2.447953833473158 118 109 92 0 3 1522 10 1498 4 1470 56 1566 1 1558 78 1586 0 1011 67 98 12 1468
1840 1.6422091672937276 -2.489698734837241 3.989503522183722 105 99 87 0 12 1453 56 650 0 414
1841 3.5943707222950545 -3.025268895486518 2.4951531876990036 138 126 114 0 7 227 78 1241 0 1176 56 228
1842 1.898429276835267 1.446383886318835 0.6455992309363885 101 91 86 0 0 2488 34 2575
1843 -4.861630120722025 -0.43839219425354914 -7.908863848564851 218 201 172 0 1 757 57 512 58 860
1844 4.576452418453265 0.45654166087296866 3.0864821591307954 125 157 212 0 4 4 56 1121 5 911 18 214 6 1421 45 771 15 74 23 822 78 936 0 572 12 748
1845 2.1491487168131287 2.675857375251137 0.8181471491387123 64 70 78 0 13 1859 18 1789 11 1794
1846 0.9469908684542097 -2.021917034582071 1.4281027890261218 148 134 121 0 22 1017 36 1926
1847 -0.8182251132310362 1.588346828692775 3.7924305734089634 23 26 29 0 5 1990 6 2339 7 1841 67 376
1848 4.50542370263216 1.498104591237896 2.262366449585087 67 60 56 0 10 1306 89 1345 1 1408 78 1547 67 611 56 1365 45 1511
1849 3.2875981992121757 1.9561368546600264 4.4283051580020665 56 49 44 0 1 205 10 587
1850 0.16180877332791027 1.4301518121426418 3.5108323426740253 14 13 15 0 15 2522 20 2410
1851 1.97347545090503 0.22293393981986326 1.4722952086349343 132 103 70 0 3 2029 5 2245 4 2273
1852 -1.942631001306369 -3.2450260393494035 -0.5305528735206204 136 124 101 0 14 267 43 277 44 1255 46 1058
1853 1.1223580113711342 -3.5045449666018893 2.262495483142374 167 156 140 0 12 127 78 215
1854 3.281653509305853 -2.5264487137419724 2.9433915924029694 79 72 65 0 8 1035 9 1365 89 1457 1 1388 67 161
1855 3.7711269732212185 0.9437234614201438 2.3867364905672335 90 83 79 0 4 260 56 255 5 980 45 660 23 149 34 735 0 199
1856 -0.6463801514640354 -3.1363074045996826 -0.4840180249284202 193 179 164 0 42 748 92 1061
1857 0.20802623933085237 0.9930999542915345 5.496851058180458 91 88 83 0 27 146 65 133 69 920
1858 2.0192697443260608 -0.014620885416200491 1.2826181729252295 86 59 38 0 23 411 45 451 34 1065
1859 1.1592679036093938 -0.9126302921222745 -2.3354363273023564 36 28 24 0 6 774 7 1120 9 892 10 505 11 46 13 1636 78 455 14 1299 67 891
1860 -1.205347752543723 2.0431966063380265 -0.1775811937119702 163 146 122 0 83 82 79 471 97 260 81 823 87 763 99 338 75 412 85 229 98 568 84 885 88 549 96 683 90 1306 77 631 94 127 86 1192 92 240 91 614 2 1124 93 561 95 1196 82 584
1861 0.03393647654150755 -3.634480545343854 -0.7633639205610462 186 172 157 0 37 795 44 1343 46 1246
1862 -1.0147577263462455 0.6734218711361333 2.424283701499949 55 57 42 0 3 2222 12 275 0 1623
1863 -2.124290068703037 0.8625786229318848 0.40766481516942854 199 188 180 0 73 439 99 1811 98 138 85 237 97 40 71 392 74 1346
1864 1.7604446672511833 15.261023720089932 0.4988140540359573 134 107 99 0 12 1205 32 2227
1865 4.360131812351698 -2.4242313999883374 2.8217558535877605 66 60 50 0 7 183 9 844 10 1065 23 803 11 144 67 206 45 938 34 1026 12 1621 0 854
1866 1.7666030698663568 0.9143480187138944 -2.793060819620806 77 76 180 0 2 1048 93 695 87 356 98 720 99 219 97 874 92 399 94 426 90 1111 96 829 88 592
1867 3.677666489165337 0.7686697529192353 2.4264171828363175 165 155 149 0 1 795 3 856 23 1203 45 45 56 833 67 808 78 538 0 759 89 907 34 69 12 815
1868 -2.010274994293617 2.1074227090530857 0.56510063618461 68 58 55 0 87 1627 98 1876 90 1749 88 1722
1869 4.160001977314474 0.8402241537020176 2.13301796225797 137 126 121 0 9 421 10 1456 56 399 45 479 34 1025
1870 4.707367393405921 0.3372448337880094 -0.5568371479194707 14 11 4 0 34 342 51 2202
1871 1.265838571990295 -0.8565939259233899 -1.6362772814480544 48 41 36 0 4 490 56 2077 67 1251 89 696
1872 0.11721442280916132 2.0180419008153563 -0.8130729672098731 174 157 131 0 31 1630 40 1954 42 2002
1873 2.673538785559417 3.4923192994479035 0.9913550517409845 88 73 52 0 14 1797 21 2041
1874 3.724531275294548 0.49603927240948104 3.505102164239878 125 152 179 0 26 462 67 205
1875 3.7098327418447585 -1.4611255682551987 2.167215078558931 188 183 167 0 81 1435 93 1485 79 646 66 781 72 713 71 1168 70 1 77 642 86 759
1876 4.707232880403463 1.1244137536131975 2.222166030265494 111 101 95 0 0 2149 78 2193 8 1770 34 1953 12 2130 23 1898 67 1815 89 2068
1877 0.19670637992576917 1.9640798090951392 -2.3704860486936212 92 85 78 0 79 397 97 1740 68 1603 65 1667 94 1483 81 1264 87 668 99 1702 85 365 98 1283 82 153 95 456 66 1552 75 735 93 1552 64 1679 84 715 88 184 96 79 83 1546 90 1049 77 1292 86 554 76 1707 63 475 92 1732 91 10 80 646 2 831
1878 0.23164750357450808 -2.1012845049247457 4.730596593707855 117 109 98 0 7 430 10 1590 11 312 89 360 13 1096
1879 5.5569855968991755 1.6880908017563434 1.3092547626287214 12 10 9 0 68 1555 89 2206 1 2158 78 1689 0 1997 67 1936 56 2202 45 2290 23 1784 34 2122 12 2069
1880 1.837895457031318 0.20856986405783445 1.4975433681428638 125 102 76 0 12 2353 23 2087
1881 3.467057188104991 -2.389564971324836 2.8889727236467375 99 92 85 0 15 350 67 778 16 281 17 205 89 729 1 735 78 627
1882 0.1485045841109708 0.5872890891768132 3.1449071628747856 17 21 22 0 4 700 56 1120
1883 -0.5003822666454313 0.837371885034944 3.7469210741400487 42 48 53 0 23 1026 78 93
1884 1.7233174206719217 -2.7145803973101574 3.204138254762829 153 141 129 0 12 196 67 1104 78 1388
1885 1.0020665978915808 2.010805958014092 -1.3280957977736039 142 127 106 0 87 1296 93 311 98 1916 81 813 73 421 86 979 97 50 91 309 92 82 77 802 90 1030 96 280 88 1199
1886 1.6003257822889956 2.1392218949027537 3.171166881376579 19 17 14 0 13 2255 11 2194 24 1980 30 1171 17 2031 31 1143 32 804 19 1993 33 807 35 467 36 836 10 2138 21 1620 14 1686
1887 4.14477937767266 -3.9186344487584703 4.131500313285106 79 73 63 0 23 256 89 531 12 737
1888 2.3947936317451943 -1.6841680347606631 -1.5972422567443096 211 202 189 0 12 1300 56 1520 0 413
1889 1.829466365383961 0.4767708856376967 -4.629774560485382 211 198 178 0 11 130 89 693 1 395 78 310
1890 2.0281351278973547 0.10973067294017091 1.3633349371792247 184 154 103 0 34 1746 45 1765
1891 -1.9227693134357977 -0.6434096706333495 6.77432397327787 97 117 123 0 0 967 6 1132
1892 2.7296869765499485 -2.4146354360485027 -0.7106991524236217 182 172 154 0 23 2522 78 2526
1893 2.876161623416002 0.7209816619570298 3.783896218922438 35 71 133 0 5 1072 17 633 4 464 56 246 3 510 89 464 78 79 67 308 45 515 23 96 34 563
1894 -1.2389554358614094 -1.1102485157772095 3.048529735175726 49 49 50 0 7 15 13 1695 14 567
1895 -0.148335654288405 1.7377432451389763 3.5944134399824 21 21 21 0 0 178 56 807
1896 -1.0412107530192583 1.7553674349213366 2.6196125851821996 16 14 15 0 76 2463 79 2393 72 2467 85 2577 58 1992 64 2499 77 2453 63 2581 62 2513 82 2418 69 2498 81 2447 68 2631 73 2486 65 2501 61 2418 59 2331
1897 1.9931675169999687 -0.06484288335879626 1.3299628848891372 109 70 51 0 8 795 10 924 11 455
1898 -2.4726542397738567 1.9355938805644295 -2.9571845327860125 148 134 107 0 14 342 19 1094 20 103 21 163 50 190 26 1339 25 617 23 42 10 612 4 618 30 566 17 234 6 1043 7 891 9 534 16 1474 29 1001 24 712 28 908 15 963
1899 -5.328538131785449 -1.2816327310018774 -7.951751492597875 156 142 113 0 92 1644 91 1509 90 836 88 1518 87 1138 86 890 85 1392 84 203 83 1528 82 1568 74 346 75 365 17 1057 76 198 95 281 66 1596 70 728 99 81 96 1692 72 451 98 1654 69 1027 71 1194 97 1769 68 1068 19 973 18 862 77 220 64 620 93 1606 6 927 65 600 94 1535 73 1127 20 849 79 1613 21 905 80 362 81 886 22 1543
1900 1.5828309095282553 0.7558081800516999 -3.3430445938346844 203 187 220 0 69 2202 93 2080 97 2040 98 2183 91 2324 94 2399 90 2080 96 2575 88 2003
1901 2.8148915040251055 -3.3326309496893924 1.523691076264179 133 122 108 0 0 1465 3 513
1902 3.6448203006790068 -2.405285425929964 3.614645289717287 143 132 120 0 8 815 34 950 9 709 10 927 23 752 89 1117 78 1118 0 798 67 1190 56 1040 45 268 12 1600
1903 3.052217423868438 -0.7406536482028109 4.707330859058421 18 16 15 0 4 2603 63 2698
1904 0.5538621276499656 -0.02700361103017993 1.8031731186794817 189 174 167 0 62 680 73 924 63 245
1905 0.6337459958861591 -3.19000456713942 5.049575102767465 74 69 55 0 0 483 67 1043
1906 2.1295655095920183 1.0144792007136214 3.737823039650177 211 196 207 0 3 796 8 444 9 395 4 740 56 861 89 843 1 685 78 536 45 1163 12 855
1907 0.32205980411821944 0.7024089681564201 -1.5486997683546464 34 21 1 0 21 217 34 705 23 162 24 623 12 169 0 23
1908 4.536574694602327 0.7631158354021325 -1.553280581131077 19 17 13 0 18 479 27 407
1909 2.4516598675353993 1.9633074924794627 -3.00750169809198 22 13 0 0 1 139 4 370 5 1059 6 157 7 630 9 181 8 203 11 42 88 169 29 411 3 204 62 963 33 986 92 193 53 1708 57 767 48 1040 47 89 43 444 46 105 44 92 42 915 0 1052 49 799 78 1034 19 529 39 748 99 1064 40 576 12 52 34 532 23 1575 36 911 45 473 56 181 38 696 67 57 35 820 37 1141 50 862 41 676 87 1409 28 408 52 51 54 751 83 854 24 225 55 869 80 923 21 802 51 1475 32 849 31 1476 30 163 89 107 27 347 25 248 26 676 22 985 20 771 17 1460 15 634 18 507 14 938 16 1548 13 22 10 260
1910 -0.6119943981000914 2.3060031952393394 -2.1493371018616427 180 163 137 0 23 1754 89 1748 34 2139 12 2067 0 1959
1911 1.9917330241389646 0.5845643352681543 0.6975670436122459 64 47 37 0 0 1231 23 2248
1912 -7.257984606274732 1.8496101517299408 2.491945143854458 70 75 80 0 2 1616 85 678 87 11 91 589 92 62 94 358 96 1286 88 289 84 609
1913 -1.518709481825751 -1.365913315785504 -1.1604424949740282 122 112 96 0 77 1089 85 971 91 1070
1914 2.004079146353682 0.19798953476706757 1.1679673842688885 122 135 149 0 67 1468 78 1471
1915 4.324484558485416 0.4671377150313812 3.637657489733273 109 140 168 0 6 1410 11 920 56 8 78 1047 0 555 12 1001
1916 -0.10711211142969264 -0.8872470454030686 5.355049089097356 90 75 54 0 1 746 45 728 67 1109 89 840 23 354 34 970 12 382 0 477
1917 3.3965066262851957 -1.2706186086119795 -3.9727854879272417 109 102 83 0 62 379 88 1279 87 663 91 210 90 241
1918 3.8204729612872415 0.3353150634866334 3.759420251339343 103 116 143 0 10 592 23 565 13 478 78 725 0 373 67 991 89 1191 56 941 45 547 34 1188 12 531
1919 2.8952408891395423 -1.9717586931684679 3.589235064636119 102 96 84 0 7 43 22 835
1920 -2.314631259257566 2.0926311730502025 -0.8042583475187639 145 132 109 0 41 718 42 1325 44 1018 46 1003 43 1198 47 1106 95 2138 36 484 98 2321 39 1040 69 1767 75 1409 93 1917 65 1731 38 321 97 2041 68 1773 28 47 87 1084 80 1546 59 1754 30 969 29 130 88 1380 2 2711 61 1758 31 1516 90 1429 83 1422 32 550 91 2269 71 1615 62 1748 33 680 92 1969 72 1354 85 1477 76 1572 74 1453 53 476 82 1265 50 692 70 1723 99 2135 40 934 73 1589 52 1548 81 1595 77 1443 55 220 94 2187 35 461 66 1537 51 827 96 2297 37 865 54 51 63 1661 64 1629 84 1382 60 1677 58 48 57 1402 49 501 48 1111
1921 2.556703195921697 -2.948711640766653 1.2609641451194442 153 143 127 0 2 170 93 553 92 356 97 148 98 166 99 1423 77 1379 94 147 88 191
1922 0.4466445950029441 1.897759561002668 -1.8152574842258247 19 15 11 0 9 1188 27 1460 28 450 29 1221
1923 2.3871095255263692 1.2282725642461758 1.2266985172306513 150 123 87 0 15 1148 17 1160 18 969
1924 -0.6905293356594617 -2.103414642437355 1.4335087935710447 171 158 138 0 1 1546 34 814
1925 -0.9697994521605082 2.1640837338502754 2.226305373340959 58 51 46 0 0 1868 56 1762
1926 0.04959915534967854 -1.0092850308155317 5.523934222984826 115 109 97 0 7 484 45 581 0 284
1927 3.677144504691413 2.083934041122557 2.456655869246107 38 32 30 0 10 1314 13 502 14 514 15 192 19 200 32 18 3 1139 18 324 31 354 89 1543 17 380 5 1396 6 1145 7 76 9 1451 8 1300 11 1058 20 257 78 1389 33 174 4 1439 30 831 0 881 29 1177
1928 -5.34805202625053 -0.3099609013028187 -0.9656241040388701 86 94 100 0 70 722 91 1205 62 227 52 638 69 250 98 1117 58 878 97 1012 71 727 96 1021 66 365 94 643 92 784 63 1181 72 139 93 762 73 636 61 228 74 151
1929 1.1229547713081338 1.0001567103326063 4.183605516371065 208 202 192 0 7 542 89 143 1 155 78 1049 0 898 67 91 56 118 23 1541 34 416 12 1042
1930 4.238166618025797 0.7452101436289986 3.3283210448488814 36 35 37 0 17 2227 4 2436 56 2417 46 2378 5 2520 1 2440 78 2456 67 2477 45 2361 34 2489 12 2485
1931 3.7078568802523364 -2.9694798983373607 3.666182797795163 44 41 31 0 15 710 41 741 33 513 46 871 7 789 35 1513 36 477 37 403 42 870 43 660 44 892 14 1037 8 1190
1932 -2.8100579439701887 -0.5814960398632557 -0.9341178083925437 58 53 43 0 7 2290 12 1927 14 1918 15 2270 67 2120 16 1677 17 2071 22 2101 23 1824 89 1892
1933 0.04370965131249857 -0.10969652366064747 2.112158077656195 64 65 55 0 10 677 43 932 9 718
1934 -5.602787986543309 -0.22130260334194346 -0.7970070387529252 69 69 69 0 12 548 59 611 63 1277
1935 4.216856496255514 -0.6811034260339787 1.2437621400551142 168 164 146 0 18 299 27 1100 28 237 29 366
1936 0.13868872630126738 1.2175776425874527 4.19109713409242 28 25 28 0 6 301 45 612 12 69
1937 0.5900486793844698 1.1188202562792882 -1.5793193835416668 24 22 22 0 24 932 42 792 20 332 10 863 4 858
1938 2.470416058894261 0.46212566704578795 1.3832191302227268 184 153 110 0 28 668 31 472 45 1580
1939 2.082815161045999 0.05646338071913943 1.3950958559315163 201 176 141 0 12 1758 34 24
1940 3.7802312121186787 0.9421450013784786 2.299471533870996 70 63 59 0 12 429 78 1124 0 332
1941 6.459812774189435 0.3050658869340373 2.7114847561165356 36 31 23 0 1 311 37 83
1942 2.0907916942680442 0.22295634011214524 1.0991385400003477 113 127 149 0 0 79 23 193
1943 -0.845779048538514 2.01477366793472 -0.1460295705622207 173 156 130 0 82 1177 87 679 73 642 86 480 85 1030 83 1263 90 433 88 889 84 255
1944 2.065853773144291 -0.2959126126852939 1.3075014994458807 57 52 43 0 9 2 11 658
1945 1.9795422337369282 0.22402643397850935 1.323230694392014 171 144 100 0 4 2392 5 2409
1946 -0.013580908147558595 1.5879064724585532 -2.496902073081502 18 12 6 0 50 1556 53 1716 65 1495 52 109 51 1505 54 823 48 49
1947 -0.07677336325423756 -2.913964008082143 -1.6506642838741403 193 187 183 0 10 1389 23 811 89 1161 1 1058 78 1134 67 77 56 1082 45 535 34 84 12 1278
1948 0.5617085363055455 2.0492974676909936 4.059398725094177 26 24 25 0 14 431 21 262
1949 0.6790247392162776 -0.03582301734247815 0.8499043160835702 131 83 65 0 61 667 65 599
1950 4.190763564780478 1.9615622448228094 2.264242580509551 25 23 20 0 5 512 56 1095 23 542 34 184 12 1048
1951 2.1439517335895424 0.4984755609392049 -3.00388450557251 23 18 32 0 1 1232 34 854 56 398 67 1492 78 1058
1952 4.228653269158418 -0.5403603054007791 -3.1847700616229107 29 28 20 0 8 172 18 550 6 1614
1953 1.5535777995182207 2.423742115614042 0.8873296004468862 58 47 47 0 20 572 25 100 19 533 18 288
1954 -6.793614547594521 -1.4475869781271655 0.7290845028345924 61 55 51 0 2 1029 93 1482 75 1456 95 437 98 542 99 264 97 421 74 1434 92 1458 94 1758 96 477
1955 1.356475078478472 0.060321121251308105 0.9157434864945496 55 38 28 0 48 1023 51 347
1956 -2.0476006740773194 2.076208135444828 -0.20044219147550868 153 140 118 0 2 1244 87 1477
1957 1.3778133189539625 2.0041794005739426 -1.121165278811032 173 156 132 0 2 372 73 363
